x,y,z,nx,ny,nz,u,v
1.27487095,3.50000000,0.32065901,-0.891313,0.294738,0.344515,0.013815,0.700000
1.36578123,3.75000000,0.34197856,-0.892248,0.295329,0.341576,0.013815,0.750000
1.45669152,4.00000000,0.36329812,-0.893251,0.295966,0.338389,0.013815,0.800000
1.54760180,4.25000000,0.38461768,-0.894329,0.296653,0.334922,0.013815,0.850000
1.63851208,4.50000000,0.40593724,-0.895490,0.297398,0.331137,0.013815,0.900000
1.72942237,4.75000000,0.42725680,-0.896745,0.298208,0.326988,0.013815,0.950000
1.82033265,5.00000000,0.44857636,-0.898103,0.299092,0.322420,0.013815,1.000000
0.00770777,0.00000000,0.03221391,-0.798300,0.243364,0.550901,0.024472,0.000000
0.09846522,0.25000000,0.05328971,-0.798969,0.243701,0.549781,0.024472,0.050000
0.18922267,0.50000000,0.07436551,-0.799671,0.244056,0.548601,0.024472,0.100000
0.27998012,0.75000000,0.09544131,-0.800410,0.244429,0.547357,0.024472,0.150000
0.37073758,1.00000000,0.11651711,-0.801187,0.244822,0.546042,0.024472,0.200000
0.46149503,1.25000000,0.13759291,-0.802007,0.245237,0.544651,0.024472,0.250000
0.55225248,1.50000000,0.15866871,-0.802872,0.245675,0.543176,0.024472,0.300000
0.64300993,1.75000000,0.17974450,-0.803787,0.246139,0.541611,0.024472,0.350000
0.73376738,2.00000000,0.20082030,-0.804756,0.246631,0.539946,0.024472,0.400000
0.82452483,2.25000000,0.22189610,-0.805783,0.247154,0.538171,0.024472,0.450000
0.91528229,2.50000000,0.24297190,-0.806875,0.247710,0.536277,0.024472,0.500000
1.00603974,2.75000000,0.26404770,-0.808037,0.248303,0.534249,0.024472,0.550000
1.09679719,3.00000000,0.28512350,-0.809277,0.248936,0.532073,0.024472,0.600000
1.18755464,3.25000000,0.30619930,-0.810602,0.249615,0.529733,0.024472,0.650000
1.27831209,3.50000000,0.32727510,-0.812022,0.250343,0.527209,0.024472,0.700000
1.36906954,3.75000000,0.34835090,-0.813546,0.251126,0.524479,0.024472,0.750000
1.45982700,4.00000000,0.36942670,-0.815187,0.251972,0.521517,0.024472,0.800000
1.55058445,4.25000000,0.39050250,-0.816959,0.252887,0.518293,0.024472,0.850000
1.64134190,4.50000000,0.41157830,-0.818877,0.253880,0.514768,0.024472,0.900000
1.73209935,4.75000000,0.43265410,-0.820960,0.254962,0.510901,0.024472,0.950000
1.82285680,5.00000000,0.45372990,-0.823230,0.256146,0.506638,0.024472,1.000000
0.01795605,0.00000000,0.04438463,-0.697236,0.195008,0.689807,0.038060,0.000000
0.10844102,0.25000000,0.06516916,-0.698105,0.195405,0.688816,0.038060,0.050000
0.19892599,0.50000000,0.08595368,-0.699018,0.195822,0.687770,0.038060,0.100000
0.28941096,0.75000000,0.10673820,-0.699978,0.196262,0.686667,0.038060,0.150000
0.37989593,1.00000000,0.12752273,-0.700991,0.196725,0.685501,0.038060,0.200000
0.47038090,1.25000000,0.14830725,-0.702058,0.197214,0.684266,0.038060,0.250000
0.56086587,1.50000000,0.16909177,-0.703187,0.197732,0.682957,0.038060,0.300000
0.65135084,1.75000000,0.18987629,-0.704381,0.198279,0.681566,0.038060,0.350000
0.74183580,2.00000000,0.21066082,-0.705647,0.198861,0.680086,0.038060,0.400000
0.83232077,2.25000000,0.23144534,-0.706990,0.199478,0.678508,0.038060,0.450000
0.92280574,2.50000000,0.25222986,-0.708420,0.200136,0.676821,0.038060,0.500000
1.01329071,2.75000000,0.27301439,-0.709943,0.200837,0.675015,0.038060,0.550000
1.10377568,3.00000000,0.29379891,-0.711570,0.201588,0.673075,0.038060,0.600000
1.19426065,3.25000000,0.31458343,-0.713312,0.202391,0.670987,0.038060,0.650000
1.28474562,3.50000000,0.33536796,-0.715181,0.203255,0.668733,0.038060,0.700000
1.37523059,3.75000000,0.35615248,-0.717190,0.204185,0.666293,0.038060,0.750000
1.46571556,4.00000000,0.37693700,-0.719358,0.205190,0.663643,0.038060,0.800000
1.55620053,4.25000000,0.39772152,-0.721702,0.206279,0.660754,0.038060,0.850000
1.64668550,4.50000000,0.41850605,-0.724245,0.207462,0.657593,0.038060,0.900000
1.73717047,4.75000000,0.43929057,-0.727014,0.208753,0.654119,0.038060,0.950000
1.82765544,5.00000000,0.46007509,-0.730040,0.210167,0.650286,0.038060,1.000000
0.03386734,0.00000000,0.05811764,-0.593625,0.149144,0.790800,0.054497,0.000000
0.12393601,0.25000000,0.07857918,-0.594646,0.149582,0.789950,0.054497,0.050000
0.21400468,0.50000000,0.09904073,-0.595720,0.150042,0.789053,0.054497,0.100000
0.30407336,0.75000000,0.11950227,-0.596850,0.150526,0.788107,0.054497,0.150000
0.39414203,1.00000000,0.13996382,-0.598041,0.151037,0.787105,0.054497,0.200000
0.48421071,1.25000000,0.16042537,-0.599298,0.151577,0.786045,0.054497,0.250000
0.57427938,1.50000000,0.18088691,-0.600627,0.152148,0.784919,0.054497,0.300000
0.66434805,1.75000000,0.20134846,-0.602034,0.152753,0.783723,0.054497,0.350000
0.75441673,2.00000000,0.22181000,-0.603527,0.153395,0.782448,0.054497,0.400000
0.84448540,2.25000000,0.24227155,-0.605113,0.154078,0.781088,0.054497,0.450000
0.93455407,2.50000000,0.26273309,-0.606800,0.154805,0.779634,0.054497,0.500000
1.02462275,2.75000000,0.28319464,-0.608601,0.155581,0.778074,0.054497,0.550000
1.11469142,3.00000000,0.30365619,-0.610525,0.156411,0.776399,0.054497,0.600000
1.20476010,3.25000000,0.32411773,-0.612586,0.157302,0.774593,0.054497,0.650000
1.29482877,3.50000000,0.34457928,-0.614800,0.158259,0.772642,0.054497,0.700000
1.38489744,3.75000000,0.36504082,-0.617183,0.159291,0.770527,0.054497,0.750000
1.47496612,4.00000000,0.38550237,-0.619756,0.160406,0.768227,0.054497,0.800000
1.56503479,4.25000000,0.40596391,-0.622542,0.161615,0.765716,0.054497,0.850000
1.65510346,4.50000000,0.42642546,-0.625569,0.162931,0.762966,0.054497,0.900000
1.74517214,4.75000000,0.44688701,-0.628869,0.164368,0.759939,0.054497,0.950000
1.83524081,5.00000000,0.46734855,-0.632480,0.165942,0.756592,0.054497,1.000000
0.05627622,0.00000000,0.07276203,-0.495167,0.107852,0.862078,0.073680,0.000000
0.14576474,0.25000000,0.09288629,-0.496298,0.108314,0.861369,0.073680,0.050000
0.23525326,0.50000000,0.11301054,-0.497488,0.108800,0.860621,0.073680,0.100000
0.32474179,0.75000000,0.13313480,-0.498741,0.109313,0.859830,0.073680,0.150000
0.41423031,1.00000000,0.15325905,-0.500062,0.109853,0.858994,0.073680,0.200000
0.50371883,1.25000000,0.17338330,-0.501457,0.110424,0.858107,0.073680,0.250000
0.59320736,1.50000000,0.19350756,-0.502932,0.111027,0.857165,0.073680,0.300000
0.68269588,1.75000000,0.21363181,-0.504495,0.111668,0.856163,0.073680,0.350000
0.77218440,2.00000000,0.23375606,-0.506153,0.112347,0.855095,0.073680,0.400000
0.86167293,2.25000000,0.25388032,-0.507916,0.113070,0.853954,0.073680,0.450000
0.95116145,2.50000000,0.27400457,-0.509793,0.113840,0.852732,0.073680,0.500000
1.04064997,2.75000000,0.29412883,-0.511796,0.114662,0.851421,0.073680,0.550000
1.13013850,3.00000000,0.31425308,-0.513938,0.115543,0.850011,0.073680,0.600000
1.21962702,3.25000000,0.33437733,-0.516234,0.116487,0.848489,0.073680,0.650000
1.30911554,3.50000000,0.35450159,-0.518701,0.117503,0.846843,0.073680,0.700000
1.39860407,3.75000000,0.37462584,-0.521359,0.118598,0.845056,0.073680,0.750000
1.48809259,4.00000000,0.39475010,-0.524231,0.119783,0.843110,0.073680,0.800000
1.57758111,4.25000000,0.41487435,-0.527344,0.121068,0.840982,0.073680,0.850000
1.66706964,4.50000000,0.43499860,-0.530728,0.122468,0.838647,0.073680,0.900000
1.75655816,4.75000000,0.45512286,-0.534422,0.123997,0.836073,0.073680,0.950000
1.84604668,5.00000000,0.47524711,-0.538469,0.125675,0.833221,0.073680,1.000000
0.08574029,0.00000000,0.08753909,-0.401351,0.070148,0.913234,0.095492,0.000000
0.17447187,0.25000000,0.10733196,-0.402563,0.070623,0.912664,0.095492,0.050000
0.26320345,0.50000000,0.12712483,-0.403837,0.071123,0.912062,0.095492,0.100000
0.35193503,0.75000000,0.14691770,-0.405180,0.071650,0.911425,0.095492,0.150000
0.44066660,1.00000000,0.16671058,-0.406596,0.072206,0.910750,0.095492,0.200000
0.52939818,1.25000000,0.18650345,-0.408091,0.072794,0.910034,0.095492,0.250000
0.61812976,1.50000000,0.20629632,-0.409674,0.073415,0.909273,0.095492,0.300000
0.70686134,1.75000000,0.22608919,-0.411350,0.074075,0.908463,0.095492,0.350000
0.79559291,2.00000000,0.24588206,-0.413129,0.074775,0.907597,0.095492,0.400000
0.88432449,2.25000000,0.26567494,-0.415021,0.075519,0.906672,0.095492,0.450000
0.97305607,2.50000000,0.28546781,-0.417037,0.076313,0.905680,0.095492,0.500000
1.06178765,2.75000000,0.30526068,-0.419189,0.077162,0.904614,0.095492,0.550000
1.15051922,3.00000000,0.32505355,-0.421492,0.078070,0.903465,0.095492,0.600000
1.23925080,3.25000000,0.34484642,-0.423961,0.079044,0.902225,0.095492,0.650000
1.32798238,3.50000000,0.36463930,-0.426616,0.080093,0.900880,0.095492,0.700000
1.41671396,3.75000000,0.38443217,-0.429477,0.081225,0.899418,0.095492,0.750000
1.50544554,4.00000000,0.40422504,-0.432571,0.082449,0.897822,0.095492,0.800000
1.59417711,4.25000000,0.42401791,-0.435926,0.083778,0.896074,0.095492,0.850000
1.68290869,4.50000000,0.44381078,-0.439577,0.085226,0.894152,0.095492,0.900000
1.77164027,4.75000000,0.46360366,-0.443565,0.086810,0.892028,0.095492,0.950000
1.86037185,5.00000000,0.48339653,-0.447937,0.088548,0.889669,0.095492,1.000000
0.12253679,0.00000000,0.10156199,-0.312929,0.035899,0.949098,0.119797,0.000000
0.21032885,0.25000000,0.12105195,-0.314197,0.036379,0.948661,0.119797,0.050000
0.29812091,0.50000000,0.14054192,-0.315531,0.036883,0.948198,0.119797,0.100000
0.38591296,0.75000000,0.16003188,-0.316936,0.037415,0.947709,0.119797,0.150000
0.47370502,1.00000000,0.17952184,-0.318419,0.037976,0.947189,0.119797,0.200000
0.56149708,1.25000000,0.19901181,-0.319986,0.038569,0.946637,0.119797,0.250000
0.64928913,1.50000000,0.21850177,-0.321643,0.039197,0.946049,0.119797,0.300000
0.73708119,1.75000000,0.23799173,-0.323400,0.039863,0.945422,0.119797,0.350000
0.82487325,2.00000000,0.25748170,-0.325265,0.040570,0.944752,0.119797,0.400000
0.91266530,2.25000000,0.27697166,-0.327249,0.041323,0.944034,0.119797,0.450000
1.00045736,2.50000000,0.29646162,-0.329364,0.042125,0.943263,0.119797,0.500000
1.08824942,2.75000000,0.31595159,-0.331622,0.042983,0.942433,0.119797,0.550000
1.17604147,3.00000000,0.33544155,-0.334038,0.043902,0.941536,0.119797,0.600000
1.26383353,3.25000000,0.35493151,-0.336631,0.044888,0.940566,0.119797,0.650000
1.35162559,3.50000000,0.37442148,-0.339420,0.045949,0.939512,0.119797,0.700000
1.43941765,3.75000000,0.39391144,-0.342428,0.047095,0.938363,0.119797,0.750000
1.52720970,4.00000000,0.41340140,-0.345682,0.048336,0.937106,0.119797,0.800000
1.61500176,4.25000000,0.43289137,-0.349212,0.049683,0.935726,0.119797,0.850000
1.70279382,4.50000000,0.45238133,-0.353056,0.051152,0.934203,0.119797,0.900000
1.79058587,4.75000000,0.47187130,-0.357257,0.052759,0.932515,0.119797,0.950000
1.87837793,5.00000000,0.49136126,-0.361867,0.054524,0.930634,0.119797,1.000000
0.16666949,0.00000000,0.11395369,-0.230381,0.004990,0.973088,0.146447,0.000000
0.25334051,0.25000000,0.13319118,-0.231686,0.005467,0.972775,0.146447,0.050000
0.34001152,0.50000000,0.15242867,-0.233059,0.005968,0.972444,0.146447,0.100000
0.42668253,0.75000000,0.17166616,-0.234506,0.006497,0.972093,0.146447,0.150000
0.51335355,1.00000000,0.19090365,-0.236033,0.007055,0.971719,0.146447,0.200000
0.60002456,1.25000000,0.21014114,-0.237647,0.007645,0.971322,0.146447,0.250000
0.68669558,1.50000000,0.22937863,-0.239355,0.008270,0.970897,0.146447,0.300000
0.77336659,1.75000000,0.24861612,-0.241165,0.008933,0.970443,0.146447,0.350000
0.86003760,2.00000000,0.26785361,-0.243088,0.009637,0.969956,0.146447,0.400000
0.94670862,2.25000000,0.28709110,-0.245133,0.010386,0.969434,0.146447,0.450000
1.03337963,2.50000000,0.30632859,-0.247314,0.011185,0.968871,0.146447,0.500000
1.12005065,2.75000000,0.32556608,-0.249644,0.012040,0.968263,0.146447,0.550000
1.20672166,3.00000000,0.34480357,-0.252138,0.012955,0.967605,0.146447,0.600000
1.29339267,3.25000000,0.36404106,-0.254815,0.013938,0.966889,0.146447,0.650000
1.38006369,3.50000000,0.38327855,-0.257695,0.014997,0.966110,0.146447,0.700000
1.46673470,3.75000000,0.40251604,-0.260803,0.016140,0.965257,0.146447,0.750000
1.55340572,4.00000000,0.42175352,-0.264166,0.017378,0.964321,0.146447,0.800000
1.64007673,4.25000000,0.44099101,-0.267816,0.018723,0.963288,0.146447,0.850000
1.72674774,4.50000000,0.46022850,-0.271794,0.020190,0.962144,0.146447,0.900000
1.81341876,4.75000000,0.47946599,-0.276143,0.021795,0.960870,0.146447,0.950000
1.90008977,5.00000000,0.49870348,-0.280918,0.023561,0.959443,0.146447,1.000000
0.21787864,0.00000000,0.12392379,-0.154590,-0.022491,0.987723,0.175276,0.000000
0.30325463,0.25000000,0.14297869,-0.155917,-0.022022,0.987525,0.175276,0.050000
0.38863061,0.50000000,0.16203359,-0.157314,-0.021529,0.987314,0.175276,0.100000
0.47400660,0.75000000,0.18108848,-0.158786,-0.021010,0.987090,0.175276,0.150000
0.55938258,1.00000000,0.20014338,-0.160339,-0.020461,0.986850,0.175276,0.200000
0.64475857,1.25000000,0.21919828,-0.161981,-0.019881,0.986594,0.175276,0.250000
0.73013456,1.50000000,0.23825318,-0.163719,-0.019266,0.986319,0.175276,0.300000
0.81551054,1.75000000,0.25730807,-0.165561,-0.018614,0.986024,0.175276,0.350000
0.90088653,2.00000000,0.27636297,-0.167519,-0.017922,0.985706,0.175276,0.400000
0.98626251,2.25000000,0.29541787,-0.169602,-0.017184,0.985363,0.175276,0.450000
1.07163850,2.50000000,0.31447277,-0.171823,-0.016397,0.984991,0.175276,0.500000
1.15701449,2.75000000,0.33352766,-0.174197,-0.015556,0.984588,0.175276,0.550000
1.24239047,3.00000000,0.35258256,-0.176739,-0.014654,0.984149,0.175276,0.600000
1.32776646,3.25000000,0.37163746,-0.179467,-0.013686,0.983669,0.175276,0.650000
1.41314244,3.50000000,0.39069236,-0.182405,-0.012643,0.983142,0.175276,0.700000
1.49851843,3.75000000,0.40974725,-0.185575,-0.011516,0.982563,0.175276,0.750000
1.58389441,4.00000000,0.42880215,-0.189006,-0.010295,0.981922,0.175276,0.800000
1.66927040,4.25000000,0.44785705,-0.192734,-0.008968,0.981210,0.175276,0.850000
1.75464639,4.50000000,0.46691195,-0.196796,-0.007520,0.980416,0.175276,0.900000
1.84002237,4.75000000,0.48596684,-0.201240,-0.005935,0.979524,0.175276,0.950000
1.92539836,5.00000000,0.50502174,-0.206122,-0.004191,0.978517,0.175276,1.000000
0.27564218,0.00000000,0.13092101,-0.088650,-0.045685,0.995015,0.206107,0.000000
0.35956294,0.25000000,0.14987631,-0.089987,-0.045229,0.994915,0.206107,0.050000
0.44348371,0.50000000,0.16883162,-0.091394,-0.044748,0.994809,0.206107,0.100000
0.52740447,0.75000000,0.18778692,-0.092878,-0.044241,0.994694,0.206107,0.150000
0.61132523,1.00000000,0.20674223,-0.094444,-0.043706,0.994570,0.206107,0.200000
0.69524600,1.25000000,0.22569753,-0.096099,-0.043141,0.994436,0.206107,0.250000
0.77916676,1.50000000,0.24465284,-0.097851,-0.042541,0.994291,0.206107,0.300000
0.86308752,1.75000000,0.26360814,-0.099710,-0.041906,0.994134,0.206107,0.350000
0.94700829,2.00000000,0.28256345,-0.101684,-0.041230,0.993962,0.206107,0.400000
1.03092905,2.25000000,0.30151875,-0.103786,-0.040510,0.993774,0.206107,0.450000
1.11484981,2.50000000,0.32047406,-0.106027,-0.039742,0.993569,0.206107,0.500000
1.19877058,2.75000000,0.33942936,-0.108422,-0.038921,0.993343,0.206107,0.550000
1.28269134,3.00000000,0.35838467,-0.110988,-0.038041,0.993093,0.206107,0.600000
1.36661210,3.25000000,0.37733997,-0.113744,-0.037095,0.992817,0.206107,0.650000
1.45053287,3.50000000,0.39629528,-0.116711,-0.036076,0.992511,0.206107,0.700000
1.53445363,3.75000000,0.41525058,-0.119913,-0.034975,0.992168,0.206107,0.750000
1.61837439,4.00000000,0.43420589,-0.123382,-0.033781,0.991784,0.206107,0.800000
1.70229516,4.25000000,0.45316119,-0.127150,-0.032484,0.991352,0.206107,0.850000
1.78621592,4.50000000,0.47211650,-0.131258,-0.031067,0.990861,0.206107,0.900000
1.87013668,4.75000000,0.49107180,-0.135754,-0.029516,0.990303,0.206107,0.950000
1.95405744,5.00000000,0.51002711,-0.140696,-0.027808,0.989662,0.206107,1.000000
0.33917221,0.00000000,0.13480260,-0.036319,-0.063602,0.997314,0.238751,0.000000
0.42149746,0.25000000,0.15374386,-0.037658,-0.063159,0.997293,0.238751,0.050000
0.50382272,0.50000000,0.17268511,-0.039068,-0.062693,0.997268,0.238751,0.100000
0.58614798,0.75000000,0.19162637,-0.040555,-0.062201,0.997239,0.238751,0.150000
0.66847324,1.00000000,0.21056762,-0.042124,-0.061682,0.997207,0.238751,0.200000
0.75079849,1.25000000,0.22950888,-0.043782,-0.061133,0.997169,0.238751,0.250000
0.83312375,1.50000000,0.24845013,-0.045539,-0.060551,0.997126,0.238751,0.300000
0.91544901,1.75000000,0.26739139,-0.047402,-0.059934,0.997076,0.238751,0.350000
0.99777427,2.00000000,0.28633264,-0.049381,-0.059278,0.997019,0.238751,0.400000
1.08009952,2.25000000,0.30527390,-0.051488,-0.058579,0.996954,0.238751,0.450000
1.16242478,2.50000000,0.32421515,-0.053736,-0.057833,0.996879,0.238751,0.500000
1.24475004,2.75000000,0.34315641,-0.056139,-0.057035,0.996793,0.238751,0.550000
1.32707529,3.00000000,0.36209766,-0.058713,-0.056180,0.996693,0.238751,0.600000
1.40940055,3.25000000,0.38103892,-0.061478,-0.055261,0.996577,0.238751,0.650000
1.49172581,3.50000000,0.39998017,-0.064455,-0.054271,0.996444,0.238751,0.700000
1.57405107,3.75000000,0.41892143,-0.067670,-0.053200,0.996288,0.238751,0.750000
1.65637632,4.00000000,0.43786268,-0.071152,-0.052040,0.996107,0.238751,0.800000
1.73870158,4.25000000,0.45680393,-0.074936,-0.050777,0.995895,0.238751,0.850000
1.82102684,4.50000000,0.47574519,-0.079063,-0.049399,0.995645,0.238751,0.900000
1.90335209,4.75000000,0.49468644,-0.083582,-0.047889,0.995350,0.238751,0.950000
1.98567735,5.00000000,0.51362770,-0.088549,-0.046227,0.994999,0.238751,1.000000
0.40760013,0.00000000,0.13593893,-0.000151,-0.075742,0.997127,0.273005,0.000000
0.48821085,0.25000000,0.15494127,-0.001489,-0.075313,0.997159,0.273005,0.050000
0.56882158,0.50000000,0.17394361,-0.002898,-0.074861,0.997190,0.273005,0.100000
0.64943231,0.75000000,0.19294595,-0.004383,-0.074385,0.997220,0.273005,0.150000
0.73004304,1.00000000,0.21194828,-0.005951,-0.073881,0.997249,0.273005,0.200000
0.81065377,1.25000000,0.23095062,-0.007608,-0.073349,0.997277,0.273005,0.250000
0.89126449,1.50000000,0.24995296,-0.009364,-0.072785,0.997304,0.273005,0.300000
0.97187522,1.75000000,0.26895530,-0.011226,-0.072187,0.997328,0.273005,0.350000
1.05248595,2.00000000,0.28795764,-0.013205,-0.071550,0.997350,0.273005,0.400000
1.13309668,2.25000000,0.30695998,-0.015311,-0.070872,0.997368,0.273005,0.450000
1.21370741,2.50000000,0.32596232,-0.017558,-0.070149,0.997382,0.273005,0.500000
1.29431813,2.75000000,0.34496465,-0.019961,-0.069375,0.997391,0.273005,0.550000
1.37492886,3.00000000,0.36396699,-0.022535,-0.068545,0.997393,0.273005,0.600000
1.45553959,3.25000000,0.38296933,-0.025300,-0.067653,0.997388,0.273005,0.650000
1.53615032,3.50000000,0.40197167,-0.028279,-0.066691,0.997373,0.273005,0.700000
1.61676105,3.75000000,0.42097401,-0.031495,-0.065652,0.997345,0.273005,0.750000
1.69737177,4.00000000,0.43997635,-0.034979,-0.064525,0.997303,0.273005,0.800000
1.77798250,4.25000000,0.45897869,-0.038767,-0.063300,0.997241,0.273005,0.850000
1.85859323,4.50000000,0.47798103,-0.042898,-0.061961,0.997156,0.273005,0.900000
1.93920396,4.75000000,0.49698336,-0.047421,-0.060494,0.997041,0.273005,0.950000
2.01981469,5.00000000,0.51598570,-0.052396,-0.058878,0.996889,0.273005,1.000000
0.48060950,0.00000000,0.13505432,0.023573,-0.083620,0.996219,0.308658,0.000000
0.55939364,0.25000000,0.15417433,0.022237,-0.083204,0.996284,0.308658,0.050000
0.63817779,0.50000000,0.17329434,0.020830,-0.082765,0.996351,0.308658,0.100000
0.71696194,0.75000000,0.19241435,0.019347,-0.082303,0.996420,0.308658,0.150000
0.79574609,1.00000000,0.21153436,0.017782,-0.081815,0.996489,0.308658,0.200000
0.87453024,1.25000000,0.23065437,0.016126,-0.081299,0.996559,0.308658,0.250000
0.95331439,1.50000000,0.24977438,0.014373,-0.080752,0.996631,0.308658,0.300000
1.03209854,1.75000000,0.26889439,0.012513,-0.080171,0.996703,0.308658,0.350000
1.11088269,2.00000000,0.28801440,0.010537,-0.079554,0.996775,0.308658,0.400000
1.18966684,2.25000000,0.30713441,0.008433,-0.078896,0.996847,0.308658,0.450000
1.26845099,2.50000000,0.32625442,0.006188,-0.078194,0.996919,0.308658,0.500000
1.34723514,2.75000000,0.34537443,0.003788,-0.077443,0.996990,0.308658,0.550000
1.42601929,3.00000000,0.36449444,0.001216,-0.076638,0.997058,0.308658,0.600000
1.50480344,3.25000000,0.38361445,-0.001547,-0.075772,0.997124,0.308658,0.650000
1.58358759,3.50000000,0.40273446,-0.004523,-0.074839,0.997185,0.308658,0.700000
1.66237174,3.75000000,0.42185447,-0.007737,-0.073831,0.997241,0.308658,0.750000
1.74115589,4.00000000,0.44097448,-0.011220,-0.072737,0.997288,0.308658,0.800000
1.81994004,4.25000000,0.46009449,-0.015006,-0.071547,0.997324,0.308658,0.850000
1.89872419,4.50000000,0.47921450,-0.019135,-0.070247,0.997346,0.308658,0.900000
1.97750834,4.75000000,0.49833450,-0.023658,-0.068822,0.997348,0.308658,0.950000
2.05629249,5.00000000,0.51745451,-0.028633,-0.067252,0.997325,0.308658,1.000000
0.55798464,0.00000000,0.13235855,0.045124,-0.090630,0.994862,0.345492,0.000000
0.63483529,0.25000000,0.15164728,0.043790,-0.090227,0.994958,0.345492,0.050000
0.71168593,0.50000000,0.17093601,0.042386,-0.089803,0.995057,0.345492,0.100000
0.78853658,0.75000000,0.19022475,0.040906,-0.089356,0.995159,0.345492,0.150000
0.86538723,1.00000000,0.20951348,0.039343,-0.088884,0.995265,0.345492,0.200000
0.94223788,1.25000000,0.22880222,0.037691,-0.088384,0.995373,0.345492,0.250000
1.01908852,1.50000000,0.24809095,0.035941,-0.087855,0.995485,0.345492,0.300000
1.09593917,1.75000000,0.26737968,0.034084,-0.087293,0.995599,0.345492,0.350000
1.17278982,2.00000000,0.28666842,0.032111,-0.086695,0.995717,0.345492,0.400000
1.24964047,2.25000000,0.30595715,0.030010,-0.086059,0.995838,0.345492,0.450000
1.32649111,2.50000000,0.32524589,0.027769,-0.085380,0.995961,0.345492,0.500000
1.40334176,2.75000000,0.34453462,0.025372,-0.084653,0.996087,0.345492,0.550000
1.48019241,3.00000000,0.36382335,0.022804,-0.083873,0.996215,0.345492,0.600000
1.55704305,3.25000000,0.38311209,0.020045,-0.083035,0.996345,0.345492,0.650000
1.63389370,3.50000000,0.40240082,0.017073,-0.082131,0.996475,0.345492,0.700000
1.71074435,3.75000000,0.42168956,0.013862,-0.081154,0.996605,0.345492,0.750000
1.78759500,4.00000000,0.44097829,0.010384,-0.080095,0.996733,0.345492,0.800000
1.86444564,4.25000000,0.46026702,0.006602,-0.078942,0.996857,0.345492,0.850000
1.94129629,4.50000000,0.47955576,0.002476,-0.077683,0.996975,0.345492,0.900000
2.01814694,4.75000000,0.49884449,-0.002043,-0.076302,0.997083,0.345492,0.950000
2.09499759,5.00000000,0.51813322,-0.007015,-0.074781,0.997175,0.345492,1.000000
0.63911457,0.00000000,0.12789744,0.063622,-0.096545,0.993293,0.383277,0.000000
0.71394003,0.25000000,0.14740401,0.062291,-0.096156,0.993415,0.383277,0.050000
0.78876549,0.50000000,0.16691057,0.060890,-0.095747,0.993542,0.383277,0.100000
0.86359094,0.75000000,0.18641714,0.059413,-0.095315,0.993673,0.383277,0.150000
0.93841640,1.00000000,0.20592370,0.057853,-0.094859,0.993808,0.383277,0.200000
1.01324185,1.25000000,0.22543026,0.056204,-0.094376,0.993949,0.383277,0.250000
1.08806731,1.50000000,0.24493683,0.054457,-0.093865,0.994094,0.383277,0.300000
1.16289277,1.75000000,0.26444339,0.052604,-0.093322,0.994245,0.383277,0.350000
1.23771822,2.00000000,0.28394996,0.050635,-0.092745,0.994402,0.383277,0.400000
1.31254368,2.25000000,0.30345652,0.048538,-0.092130,0.994563,0.383277,0.450000
1.38736914,2.50000000,0.32296309,0.046301,-0.091473,0.994731,0.383277,0.500000
1.46219459,2.75000000,0.34246965,0.043908,-0.090770,0.994903,0.383277,0.550000
1.53702005,3.00000000,0.36197622,0.041344,-0.090017,0.995082,0.383277,0.600000
1.61184550,3.25000000,0.38148278,0.038590,-0.089207,0.995265,0.383277,0.650000
1.68667096,3.50000000,0.40098935,0.035622,-0.088333,0.995454,0.383277,0.700000
1.76149642,3.75000000,0.42049591,0.032416,-0.087389,0.995647,0.383277,0.750000
1.83632187,4.00000000,0.44000248,0.028943,-0.086365,0.995843,0.383277,0.800000
1.91114733,4.25000000,0.45950904,0.025166,-0.085250,0.996042,0.383277,0.850000
1.98597279,4.50000000,0.47901561,0.021045,-0.084032,0.996241,0.383277,0.900000
2.06079824,4.75000000,0.49852217,0.016531,-0.082696,0.996438,0.383277,0.950000
2.13562370,5.00000000,0.51802873,0.011565,-0.081225,0.996629,0.383277,1.000000
0.72315594,0.00000000,0.12180124,0.079926,-0.101664,0.991603,0.421783,0.000000
0.79588546,0.25000000,0.14157038,0.078598,-0.101290,0.991747,0.421783,0.050000
0.86861498,0.50000000,0.16133952,0.077200,-0.100895,0.991897,0.421783,0.100000
0.94134450,0.75000000,0.18110865,0.075726,-0.100478,0.992053,0.421783,0.150000
1.01407402,1.00000000,0.20087779,0.074170,-0.100038,0.992215,0.421783,0.200000
1.08680354,1.25000000,0.22064693,0.072524,-0.099573,0.992384,0.421783,0.250000
1.15953306,1.50000000,0.24041607,0.070781,-0.099080,0.992559,0.421783,0.300000
1.23226258,1.75000000,0.26018521,0.068932,-0.098556,0.992741,0.421783,0.350000
1.30499210,2.00000000,0.27995435,0.066966,-0.097999,0.992931,0.421783,0.400000
1.37772161,2.25000000,0.29972348,0.064873,-0.097406,0.993128,0.421783,0.450000
1.45045113,2.50000000,0.31949262,0.062640,-0.096773,0.993333,0.421783,0.500000
1.52318065,2.75000000,0.33926176,0.060252,-0.096095,0.993547,0.421783,0.550000
1.59591017,3.00000000,0.35903090,0.057693,-0.095368,0.993769,0.421783,0.600000
1.66863969,3.25000000,0.37880004,0.054943,-0.094586,0.993999,0.421783,0.650000
1.74136921,3.50000000,0.39856918,0.051981,-0.093743,0.994239,0.421783,0.700000
1.81409873,3.75000000,0.41833831,0.048780,-0.092832,0.994486,0.421783,0.750000
1.88682825,4.00000000,0.43810745,0.045312,-0.091843,0.994742,0.421783,0.800000
1.95955776,4.25000000,0.45787659,0.041541,-0.090767,0.995005,0.421783,0.850000
2.03228728,4.50000000,0.47764573,0.037427,-0.089591,0.995275,0.421783,0.900000
2.10501680,4.75000000,0.49741487,0.032919,-0.088301,0.995550,0.421783,0.950000
2.17774632,5.00000000,0.51718400,0.027959,-0.086880,0.995826,0.421783,1.000000
0.80929511,0.00000000,0.11422723,0.093845,-0.105973,0.989931,0.460770,0.000000
0.87987810,0.25000000,0.13429868,0.092520,-0.105612,0.990094,0.460770,0.050000
0.95046110,0.50000000,0.15437013,0.091125,-0.105232,0.990264,0.460770,0.100000
1.02104410,0.75000000,0.17444159,0.089654,-0.104831,0.990441,0.460770,0.150000
1.09162710,1.00000000,0.19451304,0.088101,-0.104407,0.990625,0.460770,0.200000
1.16221010,1.25000000,0.21458449,0.086458,-0.103958,0.990817,0.460770,0.250000
1.23279310,1.50000000,0.23465594,0.084719,-0.103483,0.991017,0.460770,0.300000
1.30337609,1.75000000,0.25472740,0.082873,-0.102979,0.991225,0.460770,0.350000
1.37395909,2.00000000,0.27479885,0.080912,-0.102443,0.991443,0.460770,0.400000
1.44454209,2.25000000,0.29487030,0.078823,-0.101871,0.991670,0.460770,0.450000
1.51512509,2.50000000,0.31494175,0.076594,-0.101261,0.991907,0.460770,0.500000
1.58570809,2.75000000,0.33501321,0.074210,-0.100608,0.992155,0.460770,0.550000
1.65629109,3.00000000,0.35508466,0.071655,-0.099907,0.992413,0.460770,0.600000
1.72687408,3.25000000,0.37515611,0.068910,-0.099154,0.992683,0.460770,0.650000
1.79745708,3.50000000,0.39522756,0.065953,-0.098342,0.992965,0.460770,0.700000
1.86804008,3.75000000,0.41529902,0.062758,-0.097463,0.993258,0.460770,0.750000
1.93862308,4.00000000,0.43537047,0.059295,-0.096510,0.993564,0.460770,0.800000
2.00920608,4.25000000,0.45544192,0.055530,-0.095473,0.993882,0.460770,0.850000
2.07978908,4.50000000,0.47551337,0.051422,-0.094339,0.994211,0.460770,0.900000
2.15037207,4.75000000,0.49558482,0.046920,-0.093095,0.994551,0.460770,0.950000
2.22095507,5.00000000,0.51565628,0.041967,-0.091725,0.994900,0.460770,1.000000
0.89666260,0.00000000,0.10538981,0.106031,-0.109686,0.988295,0.500000,0.000000
0.96506998,0.25000000,0.12579681,0.104709,-0.109339,0.988474,0.500000,0.050000
1.03347736,0.50000000,0.14620381,0.103317,-0.108973,0.988661,0.500000,0.100000
1.10188474,0.75000000,0.16661081,0.101849,-0.108587,0.988856,0.500000,0.150000
1.17029212,1.00000000,0.18701782,0.100298,-0.108180,0.989059,0.500000,0.200000
1.23869950,1.25000000,0.20742482,0.098659,-0.107748,0.989271,0.500000,0.250000
1.30710688,1.50000000,0.22783182,0.096923,-0.107291,0.989492,0.500000,0.300000
1.37551426,1.75000000,0.24823882,0.095081,-0.106806,0.989723,0.500000,0.350000
1.44392164,2.00000000,0.26864583,0.093123,-0.106290,0.989965,0.500000,0.400000
1.51232902,2.25000000,0.28905283,0.091038,-0.105740,0.990218,0.500000,0.450000
1.58073640,2.50000000,0.30945983,0.088813,-0.105153,0.990482,0.500000,0.500000
1.64914378,2.75000000,0.32986683,0.086433,-0.104524,0.990759,0.500000,0.550000
1.71755117,3.00000000,0.35027383,0.083883,-0.103850,0.991049,0.500000,0.600000
1.78595855,3.25000000,0.37068084,0.081143,-0.103125,0.991353,0.500000,0.650000
1.85436593,3.50000000,0.39108784,0.078190,-0.102343,0.991671,0.500000,0.700000
1.92277331,3.75000000,0.41149484,0.075000,-0.101498,0.992005,0.500000,0.750000
1.99118069,4.00000000,0.43190184,0.071543,-0.100580,0.992353,0.500000,0.800000
2.05958807,4.25000000,0.45230885,0.067784,-0.099581,0.992718,0.500000,0.850000
2.12799545,4.50000000,0.47271585,0.063681,-0.098490,0.993098,0.500000,0.900000
2.19640283,4.75000000,0.49312285,0.059186,-0.097292,0.993494,0.500000,0.950000
2.26481021,5.00000000,0.51352985,0.054240,-0.095972,0.993905,0.500000,1.000000
0.98438039,0.00000000,0.09548545,0.116623,-0.112871,0.986742,0.539230,0.000000
1.05060478,0.25000000,0.11625517,0.115303,-0.112537,0.986935,0.539230,0.050000
1.11682917,0.50000000,0.13702489,0.113913,-0.112186,0.987136,0.539230,0.100000
1.18305356,0.75000000,0.15779461,0.112448,-0.111815,0.987346,0.539230,0.150000
1.24927795,1.00000000,0.17856433,0.110901,-0.111423,0.987566,0.539230,0.200000
1.31550234,1.25000000,0.19933405,0.109264,-0.111009,0.987795,0.539230,0.250000
1.38172673,1.50000000,0.22010377,0.107531,-0.110569,0.988034,0.539230,0.300000
1.44795112,1.75000000,0.24087349,0.105692,-0.110103,0.988285,0.539230,0.350000
1.51417550,2.00000000,0.26164321,0.103737,-0.109607,0.988547,0.539230,0.400000
1.58039989,2.25000000,0.28241293,0.101656,-0.109079,0.988822,0.539230,0.450000
1.64662428,2.50000000,0.30318265,0.099435,-0.108514,0.989109,0.539230,0.500000
1.71284867,2.75000000,0.32395237,0.097059,-0.107910,0.989411,0.539230,0.550000
1.77907306,3.00000000,0.34472209,0.094513,-0.107262,0.989728,0.539230,0.600000
1.84529745,3.25000000,0.36549181,0.091777,-0.106565,0.990061,0.539230,0.650000
1.91152184,3.50000000,0.38626153,0.088829,-0.105813,0.990411,0.539230,0.700000
1.97774623,3.75000000,0.40703125,0.085644,-0.105000,0.990778,0.539230,0.750000
2.04397062,4.00000000,0.42780098,0.082192,-0.104117,0.991163,0.539230,0.800000
2.11019501,4.25000000,0.44857070,0.078439,-0.103157,0.991568,0.539230,0.850000
2.17641940,4.50000000,0.46934042,0.074342,-0.102107,0.991992,0.539230,0.900000
2.24264379,4.75000000,0.49011014,0.069853,-0.100954,0.992436,0.539230,0.950000
2.30886818,5.00000000,0.51087986,0.064913,-0.099684,0.992899,0.539230,1.000000
1.07156081,0.00000000,0.08477483,0.125498,-0.115523,0.985345,0.578217,0.000000
1.13561672,0.25000000,0.10592675,0.124180,-0.115203,0.985549,0.578217,0.050000
1.19967263,0.50000000,0.12707867,0.122792,-0.114865,0.985763,0.578217,0.100000
1.26372853,0.75000000,0.14823059,0.121329,-0.114509,0.985985,0.578217,0.150000
1.32778444,1.00000000,0.16938251,0.119784,-0.114133,0.986218,0.578217,0.200000
1.39184034,1.25000000,0.19053443,0.118151,-0.113735,0.986461,0.578217,0.250000
1.45589625,1.50000000,0.21168635,0.116420,-0.113313,0.986715,0.578217,0.300000
1.51995215,1.75000000,0.23283827,0.114584,-0.112865,0.986981,0.578217,0.350000
1.58400806,2.00000000,0.25399019,0.112632,-0.112389,0.987260,0.578217,0.400000
1.64806396,2.25000000,0.27514211,0.110554,-0.111881,0.987553,0.578217,0.450000
1.71211987,2.50000000,0.29629403,0.108336,-0.111339,0.987860,0.578217,0.500000
1.77617578,2.75000000,0.31744595,0.105964,-0.110758,0.988182,0.578217,0.550000
1.84023168,3.00000000,0.33859787,0.103421,-0.110136,0.988521,0.578217,0.600000
1.90428759,3.25000000,0.35974979,0.100689,-0.109466,0.988878,0.578217,0.650000
1.96834349,3.50000000,0.38090171,0.097746,-0.108743,0.989253,0.578217,0.700000
2.03239940,3.75000000,0.40205363,0.094565,-0.107962,0.989647,0.578217,0.750000
2.09645530,4.00000000,0.42320555,0.091118,-0.107113,0.990063,0.578217,0.800000
2.16051121,4.25000000,0.44435747,0.087369,-0.106190,0.990500,0.578217,0.850000
2.22456711,4.50000000,0.46550939,0.083277,-0.105180,0.990960,0.578217,0.900000
2.28862302,4.75000000,0.48666130,0.078794,-0.104073,0.991444,0.578217,0.950000
2.35267892,5.00000000,0.50781322,0.073860,-0.102851,0.991951,0.578217,1.000000
1.15735623,0.00000000,0.07348754,0.133459,-0.117866,0.984020,0.616723,0.000000
1.21927908,0.25000000,0.09503429,0.132143,-0.117559,0.984235,0.616723,0.050000
1.28120193,0.50000000,0.11658103,0.130758,-0.117235,0.984458,0.616723,0.100000
1.34312477,0.75000000,0.13812777,0.129297,-0.116893,0.984692,0.616723,0.150000
1.40504762,1.00000000,0.15967452,0.127754,-0.116532,0.984936,0.616723,0.200000
1.46697047,1.25000000,0.18122126,0.126123,-0.116150,0.985191,0.616723,0.250000
1.52889332,1.50000000,0.20276800,0.124395,-0.115745,0.985459,0.616723,0.300000
1.59081617,1.75000000,0.22431474,0.122561,-0.115315,0.985739,0.616723,0.350000
1.65273902,2.00000000,0.24586149,0.120612,-0.114858,0.986033,0.616723,0.400000
1.71466187,2.25000000,0.26740823,0.118537,-0.114370,0.986341,0.616723,0.450000
1.77658472,2.50000000,0.28895497,0.116322,-0.113850,0.986665,0.616723,0.500000
1.83850757,2.75000000,0.31050172,0.113953,-0.113292,0.987005,0.616723,0.550000
1.90043041,3.00000000,0.33204846,0.111414,-0.112694,0.987364,0.616723,0.600000
1.96235326,3.25000000,0.35359520,0.108686,-0.112051,0.987741,0.616723,0.650000
2.02427611,3.50000000,0.37514195,0.105746,-0.111357,0.988138,0.616723,0.700000
2.08619896,3.75000000,0.39668869,0.102570,-0.110606,0.988557,0.616723,0.750000
2.14812181,4.00000000,0.41823543,0.099127,-0.109792,0.988999,0.616723,0.800000
2.21004466,4.25000000,0.43978218,0.095382,-0.108904,0.989466,0.616723,0.850000
2.27196751,4.50000000,0.46132892,0.091296,-0.107935,0.989957,0.616723,0.900000
2.33389036,4.75000000,0.48287566,0.086818,-0.106870,0.990475,0.616723,0.950000
2.39581321,5.00000000,0.50442241,0.081889,-0.105696,0.991021,0.616723,1.000000
1.24093112,0.00000000,0.06184368,0.140441,-0.119900,0.982802,0.654508,0.000000
1.30077697,0.25000000,0.08379126,0.139127,-0.119605,0.983025,0.654508,0.050000
1.36062282,0.50000000,0.10573885,0.137743,-0.119294,0.983258,0.654508,0.100000
1.42046866,0.75000000,0.12768644,0.136284,-0.118966,0.983501,0.654508,0.150000
1.48031451,1.00000000,0.14963403,0.134744,-0.118620,0.983755,0.654508,0.200000
1.54016036,1.25000000,0.17158162,0.133114,-0.118253,0.984021,0.654508,0.250000
1.60000621,1.50000000,0.19352920,0.131389,-0.117864,0.984299,0.654508,0.300000
1.65985206,1.75000000,0.21547679,0.129558,-0.117452,0.984591,0.654508,0.350000
1.71969791,2.00000000,0.23742438,0.127611,-0.117012,0.984898,0.654508,0.400000
1.77954375,2.25000000,0.25937197,0.125538,-0.116545,0.985220,0.654508,0.450000
1.83938960,2.50000000,0.28131956,0.123326,-0.116045,0.985558,0.654508,0.500000
1.89923545,2.75000000,0.30326714,0.120960,-0.115510,0.985914,0.654508,0.550000
1.95908130,3.00000000,0.32521473,0.118424,-0.114935,0.986289,0.654508,0.600000
2.01892715,3.25000000,0.34716232,0.115699,-0.114318,0.986684,0.654508,0.650000
2.07877299,3.50000000,0.36910991,0.112763,-0.113652,0.987101,0.654508,0.700000
2.13861884,3.75000000,0.39105750,0.109590,-0.112931,0.987541,0.654508,0.750000
2.19846469,4.00000000,0.41300508,0.106151,-0.112148,0.988005,0.654508,0.800000
2.25831054,4.25000000,0.43495267,0.102411,-0.111296,0.988496,0.654508,0.850000
2.31815639,4.50000000,0.45690026,0.098329,-0.110364,0.989015,0.654508,0.900000
2.37800223,4.75000000,0.47884785,0.093856,-0.109342,0.989563,0.654508,0.950000
2.43784808,5.00000000,0.50079544,0.088933,-0.108214,0.990142,0.654508,1.000000
1.32150114,0.00000000,0.05006820,0.146581,-0.121670,0.981688,0.691342,0.000000
1.37934538,0.25000000,0.07241600,0.145268,-0.121387,0.981918,0.691342,0.050000
1.43718962,0.50000000,0.09476379,0.143886,-0.121088,0.982158,0.691342,0.100000
1.49503387,0.75000000,0.11711159,0.142429,-0.120774,0.982409,0.691342,0.150000
1.55287811,1.00000000,0.13945939,0.140890,-0.120441,0.982672,0.691342,0.200000
1.61072236,1.25000000,0.16180718,0.139263,-0.120089,0.982947,0.691342,0.250000
1.66856660,1.50000000,0.18415498,0.137539,-0.119716,0.983235,0.691342,0.300000
1.72641085,1.75000000,0.20650277,0.135710,-0.119320,0.983537,0.691342,0.350000
1.78425509,2.00000000,0.22885057,0.133766,-0.118898,0.983855,0.691342,0.400000
1.84209933,2.25000000,0.25119837,0.131695,-0.118449,0.984188,0.691342,0.450000
1.89994358,2.50000000,0.27354616,0.129486,-0.117969,0.984539,0.691342,0.500000
1.95778782,2.75000000,0.29589396,0.127123,-0.117455,0.984908,0.691342,0.550000
2.01563207,3.00000000,0.31824175,0.124589,-0.116904,0.985297,0.691342,0.600000
2.07347631,3.25000000,0.34058955,0.121867,-0.116311,0.985708,0.691342,0.650000
2.13132055,3.50000000,0.36293735,0.118934,-0.115671,0.986141,0.691342,0.700000
2.18916480,3.75000000,0.38528514,0.115765,-0.114979,0.986599,0.691342,0.750000
2.24700904,4.00000000,0.40763294,0.112329,-0.114227,0.987084,0.691342,0.800000
2.30485329,4.25000000,0.42998074,0.108593,-0.113408,0.987596,0.691342,0.850000
2.36269753,4.50000000,0.45232853,0.104515,-0.112513,0.988138,0.691342,0.900000
2.42054178,4.75000000,0.47467633,0.100046,-0.111531,0.988712,0.691342,0.950000
2.47838602,5.00000000,0.49702412,0.095128,-0.110447,0.989319,0.691342,1.000000
1.39836950,0.00000000,0.03837568,0.151797,-0.123173,0.980707,0.726995,0.000000
1.45430470,0.25000000,0.06111676,0.150486,-0.122901,0.980943,0.726995,0.050000
1.51023990,0.50000000,0.08385785,0.149106,-0.122614,0.981190,0.726995,0.100000
1.56617510,0.75000000,0.10659893,0.147650,-0.122312,0.981448,0.726995,0.150000
1.62211030,1.00000000,0.12934001,0.146113,-0.121993,0.981717,0.726995,0.200000
1.67804550,1.25000000,0.15208110,0.144487,-0.121655,0.982000,0.726995,0.250000
1.73398070,1.50000000,0.17482218,0.142765,-0.121296,0.982296,0.726995,0.300000
1.78991590,1.75000000,0.19756327,0.140937,-0.120916,0.982607,0.726995,0.350000
1.84585110,2.00000000,0.22030435,0.138995,-0.120511,0.982933,0.726995,0.400000
1.90178630,2.25000000,0.24304544,0.136927,-0.120079,0.983276,0.726995,0.450000
1.95772150,2.50000000,0.26578652,0.134719,-0.119618,0.983637,0.726995,0.500000
2.01365670,2.75000000,0.28852760,0.132358,-0.119124,0.984018,0.726995,0.550000
2.06959190,3.00000000,0.31126869,0.129828,-0.118595,0.984419,0.726995,0.600000
2.12552710,3.25000000,0.33400977,0.127108,-0.118025,0.984842,0.726995,0.650000
2.18146230,3.50000000,0.35675086,0.124178,-0.117410,0.985289,0.726995,0.700000
2.23739750,3.75000000,0.37949194,0.121011,-0.116744,0.985762,0.726995,0.750000
2.29333270,4.00000000,0.40223303,0.117579,-0.116022,0.986263,0.726995,0.800000
2.34926790,4.25000000,0.42497411,0.113846,-0.115235,0.986793,0.726995,0.850000
2.40520310,4.50000000,0.44771519,0.109772,-0.114374,0.987354,0.726995,0.900000
2.46113830,4.75000000,0.47045628,0.105307,-0.113430,0.987950,0.726995,0.950000
2.51707350,5.00000000,0.49319736,0.100392,-0.112387,0.988580,0.726995,1.000000
1.47088120,0.00000000,0.02697657,0.156484,-0.124502,0.979802,0.761249,0.000000
1.52501603,0.25000000,0.05009789,0.155174,-0.124241,0.980043,0.761249,0.050000
1.57915087,0.50000000,0.07321922,0.153795,-0.123966,0.980296,0.761249,0.100000
1.63328571,0.75000000,0.09634055,0.152341,-0.123675,0.980559,0.761249,0.150000
1.68742055,1.00000000,0.11946188,0.150805,-0.123368,0.980835,0.761249,0.200000
1.74155539,1.25000000,0.14258320,0.149180,-0.123043,0.981125,0.761249,0.250000
1.79569022,1.50000000,0.16570453,0.147460,-0.122699,0.981428,0.761249,0.300000
1.84982506,1.75000000,0.18882586,0.145634,-0.122333,0.981746,0.761249,0.350000
1.90395990,2.00000000,0.21194718,0.143694,-0.121943,0.982080,0.761249,0.400000
1.95809474,2.25000000,0.23506851,0.141627,-0.121528,0.982432,0.761249,0.450000
2.01222957,2.50000000,0.25818984,0.139422,-0.121085,0.982802,0.761249,0.500000
2.06636441,2.75000000,0.28131116,0.137063,-0.120610,0.983192,0.761249,0.550000
2.12049925,3.00000000,0.30443249,0.134534,-0.120101,0.983604,0.761249,0.600000
2.17463409,3.25000000,0.32755382,0.131817,-0.119553,0.984038,0.761249,0.650000
2.22876893,3.50000000,0.35067514,0.128889,-0.118961,0.984498,0.761249,0.700000
2.28290376,3.75000000,0.37379647,0.125725,-0.118321,0.984984,0.761249,0.750000
2.33703860,4.00000000,0.39691780,0.122296,-0.117626,0.985499,0.761249,0.800000
2.39117344,4.25000000,0.42003912,0.118566,-0.116869,0.986045,0.761249,0.850000
2.44530828,4.50000000,0.44316045,0.114495,-0.116041,0.986623,0.761249,0.900000
2.49944311,4.75000000,0.46628178,0.110033,-0.115131,0.987237,0.761249,0.950000
2.55357795,5.00000000,0.48940310,0.105123,-0.114128,0.987889,0.761249,1.000000
1.53856054,0.00000000,0.01599864,0.161182,-0.125774,0.978878,0.793893,0.000000
1.59101544,0.25000000,0.03948334,0.159873,-0.125522,0.979124,0.793893,0.050000
1.64347034,0.50000000,0.06296804,0.158495,-0.125257,0.979382,0.793893,0.100000
1.69592524,0.75000000,0.08645275,0.157042,-0.124978,0.979652,0.793893,0.150000
1.74838014,1.00000000,0.10993745,0.155508,-0.124682,0.979935,0.793893,0.200000
1.80083504,1.25000000,0.13342215,0.153885,-0.124370,0.980230,0.793893,0.250000
1.85328994,1.50000000,0.15690685,0.152166,-0.124038,0.980541,0.793893,0.300000
1.90574484,1.75000000,0.18039156,0.150342,-0.123686,0.980866,0.793893,0.350000
1.95819973,2.00000000,0.20387626,0.148403,-0.123312,0.981209,0.793893,0.400000
2.01065463,2.25000000,0.22736096,0.146339,-0.122912,0.981569,0.793893,0.450000
2.06310953,2.50000000,0.25084567,0.144135,-0.122485,0.981948,0.793893,0.500000
2.11556443,2.75000000,0.27433037,0.141778,-0.122029,0.982348,0.793893,0.550000
2.16801933,3.00000000,0.29781507,0.139252,-0.121538,0.982770,0.793893,0.600000
2.22047423,3.25000000,0.32129977,0.136537,-0.121010,0.983216,0.793893,0.650000
2.27292913,3.50000000,0.34478448,0.133612,-0.120441,0.983688,0.793893,0.700000
2.32538403,3.75000000,0.36826918,0.130451,-0.119825,0.984187,0.793893,0.750000
2.37783892,4.00000000,0.39175388,0.127024,-0.119155,0.984717,0.793893,0.800000
2.43029382,4.25000000,0.41523858,0.123297,-0.118426,0.985278,0.793893,0.850000
2.48274872,4.50000000,0.43872329,0.119230,-0.117629,0.985874,0.793893,0.900000
2.53520362,4.75000000,0.46220799,0.114772,-0.116753,0.986507,0.793893,0.950000
2.58765852,5.00000000,0.48569269,0.109865,-0.115786,0.987179,0.793893,1.000000
1.60079135,0.00000000,0.00562594,0.164926,-0.126804,0.978121,0.824724,0.000000
1.65170192,0.25000000,0.02945174,0.163618,-0.126561,0.978372,0.824724,0.050000
1.70261249,0.50000000,0.05327754,0.162241,-0.126306,0.978634,0.824724,0.100000
1.75352306,0.75000000,0.07710333,0.160789,-0.126037,0.978908,0.824724,0.150000
1.80443363,1.00000000,0.10092913,0.159256,-0.125752,0.979196,0.824724,0.200000
1.85534419,1.25000000,0.12475493,0.157634,-0.125450,0.979497,0.824724,0.250000
1.90625476,1.50000000,0.14858073,0.155916,-0.125130,0.979812,0.824724,0.300000
1.95716533,1.75000000,0.17240653,0.154094,-0.124791,0.980144,0.824724,0.350000
2.00807590,2.00000000,0.19623233,0.152157,-0.124430,0.980493,0.824724,0.400000
2.05898647,2.25000000,0.22005812,0.150093,-0.124044,0.980859,0.824724,0.450000
2.10989703,2.50000000,0.24388392,0.147891,-0.123633,0.981246,0.824724,0.500000
2.16080760,2.75000000,0.26770972,0.145536,-0.123192,0.981653,0.824724,0.550000
2.21171817,3.00000000,0.29153552,0.143012,-0.122719,0.982083,0.824724,0.600000
2.26262874,3.25000000,0.31536132,0.140299,-0.122210,0.982538,0.824724,0.650000
2.31353931,3.50000000,0.33918712,0.137375,-0.121660,0.983019,0.824724,0.700000
2.36444987,3.75000000,0.36301291,0.134216,-0.121066,0.983529,0.824724,0.750000
2.41536044,4.00000000,0.38683871,0.130792,-0.120420,0.984069,0.824724,0.800000
2.46627101,4.25000000,0.41066451,0.127068,-0.119716,0.984643,0.824724,0.850000
2.51718158,4.50000000,0.43449031,0.123003,-0.118946,0.985252,0.824724,0.900000
2.56809215,4.75000000,0.45831611,0.118548,-0.118101,0.985900,0.824724,0.950000
2.61900271,5.00000000,0.48214191,0.113644,-0.117168,0.986588,0.824724,1.000000
1.65734799,0.00000000,-0.00402462,0.168941,-0.127829,0.977302,0.853553,0.000000
1.70685533,0.25000000,0.02011677,0.167634,-0.127595,0.977557,0.853553,0.050000
1.75636267,0.50000000,0.04425816,0.166258,-0.127348,0.977824,0.853553,0.100000
1.80587001,0.75000000,0.06839956,0.164808,-0.127088,0.978104,0.853553,0.150000
1.85537735,1.00000000,0.09254095,0.163276,-0.126813,0.978396,0.853553,0.200000
1.90488469,1.25000000,0.11668234,0.161655,-0.126522,0.978703,0.853553,0.250000
1.95439204,1.50000000,0.14082373,0.159939,-0.126213,0.979025,0.853553,0.300000
2.00389938,1.75000000,0.16496512,0.158118,-0.125885,0.979363,0.853553,0.350000
2.05340672,2.00000000,0.18910651,0.156182,-0.125536,0.979718,0.853553,0.400000
2.10291406,2.25000000,0.21324791,0.154121,-0.125164,0.980092,0.853553,0.450000
2.15242140,2.50000000,0.23738930,0.151920,-0.124766,0.980486,0.853553,0.500000
2.20192874,2.75000000,0.26153069,0.149567,-0.124340,0.980902,0.853553,0.550000
2.25143608,3.00000000,0.28567208,0.147045,-0.123883,0.981341,0.853553,0.600000
2.30094342,3.25000000,0.30981347,0.144334,-0.123391,0.981806,0.853553,0.650000
2.35045077,3.50000000,0.33395486,0.141413,-0.122860,0.982297,0.853553,0.700000
2.39995811,3.75000000,0.35809625,0.138256,-0.122285,0.982818,0.853553,0.750000
2.44946545,4.00000000,0.38223765,0.134834,-0.121661,0.983371,0.853553,0.800000
2.49897279,4.25000000,0.40637904,0.131113,-0.120981,0.983958,0.853553,0.850000
2.54848013,4.50000000,0.43052043,0.127050,-0.120236,0.984582,0.853553,0.900000
2.59798747,4.75000000,0.45466182,0.122598,-0.119419,0.985246,0.853553,0.950000
2.64749481,5.00000000,0.47880321,0.117698,-0.118517,0.985952,0.853553,1.000000
1.70860430,0.00000000,-0.01298939,0.172339,-0.128696,0.976594,0.880203,0.000000
1.75684021,0.25000000,0.01144349,0.171033,-0.128469,0.976854,0.880203,0.050000
1.80507612,0.50000000,0.03587637,0.169658,-0.128230,0.977125,0.880203,0.100000
1.85331202,0.75000000,0.06030925,0.168208,-0.127978,0.977409,0.880203,0.150000
1.90154793,1.00000000,0.08474213,0.166677,-0.127712,0.977706,0.880203,0.200000
1.94978384,1.25000000,0.10917502,0.165058,-0.127430,0.978017,0.880203,0.250000
1.99801974,1.50000000,0.13360790,0.163343,-0.127131,0.978344,0.880203,0.300000
2.04625565,1.75000000,0.15804078,0.161523,-0.126813,0.978687,0.880203,0.350000
2.09449156,2.00000000,0.18247366,0.159589,-0.126476,0.979048,0.880203,0.400000
2.14272746,2.25000000,0.20690654,0.157528,-0.126115,0.979428,0.880203,0.450000
2.19096337,2.50000000,0.23133942,0.155330,-0.125730,0.979829,0.880203,0.500000
2.23919928,2.75000000,0.25577231,0.152978,-0.125318,0.980252,0.880203,0.550000
2.28743518,3.00000000,0.28020519,0.150457,-0.124875,0.980698,0.880203,0.600000
2.33567109,3.25000000,0.30463807,0.147748,-0.124398,0.981171,0.880203,0.650000
2.38390700,3.50000000,0.32907095,0.144829,-0.123884,0.981671,0.880203,0.700000
2.43214290,3.75000000,0.35350383,0.141674,-0.123327,0.982201,0.880203,0.750000
2.48037881,4.00000000,0.37793671,0.138255,-0.122722,0.982764,0.880203,0.800000
2.52861472,4.25000000,0.40236960,0.134536,-0.122063,0.983362,0.880203,0.850000
2.57685062,4.50000000,0.42680248,0.130476,-0.121342,0.983998,0.880203,0.900000
2.62508653,4.75000000,0.45123536,0.126026,-0.120550,0.984675,0.880203,0.950000
2.67332244,5.00000000,0.47566824,0.121129,-0.119675,0.985396,0.880203,1.000000
1.75250140,0.00000000,-0.02075444,0.172935,-0.129027,0.976445,0.904508,0.000000
1.79964854,0.25000000,0.00393027,0.171630,-0.128806,0.976705,0.904508,0.050000
1.84679567,0.50000000,0.02861498,0.170255,-0.128574,0.976976,0.904508,0.100000
1.89394281,0.75000000,0.05329969,0.168805,-0.128328,0.977260,0.904508,0.150000
1.94108994,1.00000000,0.07798440,0.167275,-0.128069,0.977557,0.904508,0.200000
1.98823708,1.25000000,0.10266911,0.165656,-0.127794,0.977869,0.904508,0.250000
2.03538421,1.50000000,0.12735381,0.163941,-0.127503,0.978195,0.904508,0.300000
2.08253135,1.75000000,0.15203852,0.162121,-0.127194,0.978539,0.904508,0.350000
2.12967848,2.00000000,0.17672323,0.160187,-0.126865,0.978900,0.904508,0.400000
2.17682562,2.25000000,0.20140794,0.158126,-0.126514,0.979280,0.904508,0.450000
2.22397275,2.50000000,0.22609265,0.155928,-0.126139,0.979681,0.904508,0.500000
